-24.7611 -12.4052 10.4532
-25.1607 -12.2201 10.4416
-25.4915 -12.053 10.3893
-25.6923 -11.9685 10.342
-25.9332 -11.8774 10.2714
-26.177 -11.8458 10.2079
-26.3963 -11.8611 10.1653
-26.704 -11.876 10.1184
-27.053 -11.9064 10.1009
-27.4378 -11.939 10.1236
-27.869 -11.9566 10.1939
-28.315 -11.9437 10.2968
-28.7527 -11.9011 10.3969
-29.1372 -11.8117 10.4193
-29.464 -11.6824 10.3518
-29.7566 -11.534 10.2197
-30.0023 -11.386 10.0451
-30.2242 -11.2452 9.84358
-30.4018 -11.1161 9.56219
-30.6221 -10.9757 9.39189
-30.8611 -10.8071 9.27741
-31.0898 -10.6173 9.15069
-31.31 -10.4033 9.01069
-31.53 -10.1589 8.8712
-31.7357 -9.89009 8.68923
-31.9173 -9.60811 8.49384
-32.0657 -9.32693 8.31711
-32.1734 -9.04424 8.15088
-32.2467 -8.76278 8.00591
-32.2927 -8.474 7.88489
-32.3168 -8.17644 7.79561
-32.3283 -7.88021 7.72892
-32.3378 -7.55997 7.67923
-32.3448 -7.21717 7.64699
-32.3392 -6.8526 7.61689
-32.31 -6.45836 7.58653
-32.266 -6.06938 7.56011
-32.1939 -5.69837 7.53046
-32.1005 -5.35355 7.50267
-31.997 -5.02293 7.47971
-31.8717 -4.70046 7.4595
-31.73 -4.40714 7.44174
-31.5749 -4.12969 7.42362
-31.4052 -3.86564 7.40633
-31.2249 -3.61985 7.38979
-31.0302 -3.3878 7.36759
-30.8356 -3.16588 7.34598
-30.6242 -2.94359 7.32015
-30.405 -2.71745 7.29156
-30.1873 -2.47683 7.26609
-29.9638 -2.23239 7.23512
-29.7204 -1.96167 7.19694
-29.4903 -1.65641 7.16596
-29.2885 -1.31374 7.14876
-29.0996 -0.97486 7.13488
-28.9422 -0.640295 7.13446
-28.859 -0.302491 7.17292
-28.8179 0.0333066 7.2346
-28.8025 0.353183 7.30879
-28.7962 0.663209 7.38845
-28.7828 0.965934 7.46392
-28.7663 1.26314 7.53758
-28.7339 1.55882 7.60045
-28.6958 1.85442 7.65958
-28.656 2.15122 7.71884
-28.6147 2.45066 7.7798
-28.5759 2.75412 7.8479
-28.5301 3.06485 7.91708
-28.4733 3.38454 7.98501
-28.3911 3.71522 8.03933
-28.2814 4.05455 8.07755
-28.1443 4.40442 8.10097
-27.9715 4.75893 8.09912
-27.8005 5.10304 8.09734
-27.6248 5.4303 8.08562
-27.4631 5.74911 8.08579
-27.298 6.05221 8.07806
-27.1172 6.33801 8.05149
-26.9393 6.61432 8.02708
-26.768 6.88112 8.00735
-26.5927 7.14068 7.98454
-26.3959 7.38175 7.94127
-26.1916 7.60769 7.89104
-25.9809 7.82938 7.83981
-25.7613 8.04229 7.78507
-25.5388 8.24612 7.73113
-25.3117 8.45222 7.68074
-25.0803 8.65681 7.63349
-24.8484 8.86055 7.59171
-24.6764 9.11212 7.60217
-24.5756 9.41656 7.66696
-24.4694 9.72483 7.72629
-24.3389 10.0265 7.76721
-24.2255 10.3484 7.8192
-24.1536 10.7072 7.89545
-24.1015 11.0908 7.98014
-24.0202 11.4655 8.04523
-23.906 11.8325 8.09214
-23.7499 12.1879 8.11888
-23.598 12.5558 8.14884
-23.4286 12.8988 8.16413
-23.2637 13.2286 8.17572
-23.0914 13.5389 8.17904
-22.9147 13.8333 8.17683
-22.7241 14.1073 8.16618
-22.5245 14.3652 8.15008
-22.3103 14.6048 8.12729
-22.0861 14.8304 8.10057
-21.8616 15.049 8.0741
-21.6297 15.2582 8.04587
-21.3983 15.4642 8.01953
-21.1645 15.6649 7.99374
-20.9302 15.866 7.9702
-20.7285 16.0902 7.96177
-20.5326 16.3185 7.95773
-20.4273 16.6169 7.98875
-20.3483 16.9411 8.03341
-20.2311 17.2469 8.06877
-20.0969 17.553 8.10287
-19.9647 17.8731 8.14365
-19.8025 18.1852 8.18023
-19.6049 18.4873 8.21149
-19.3872 18.7913 8.24343
-19.1507 19.0997 8.27705
-18.9217 19.4013 8.32694
-18.7031 19.6776 8.396
-18.4818 19.9239 8.47627
-18.2622 20.1492 8.56698
-18.0415 20.3558 8.66317
-17.8117 20.5424 8.7589
-17.5911 20.731 8.85776
-17.3597 20.9091 8.94927
-17.1167 21.0816 9.02979
-16.8702 21.2613 9.09918
-16.621 21.4571 9.15647
-16.3821 21.6887 9.20169
-16.1457 21.9542 9.2297
-15.9005 22.2487 9.23465
-15.6528 22.5434 9.20469
-15.4156 22.8087 9.13829
-15.1826 23.0434 9.03565
-14.9663 23.2667 8.91123
-14.7662 23.4836 8.77126
-14.5847 23.7041 8.62688
-14.4051 23.9166 8.47585
-14.225 24.1255 8.32553
-14.0413 24.3349 8.18324
-13.844 24.5406 8.05058
-13.6297 24.7458 7.93511
-13.3935 24.9515 7.84203
-13.1264 25.1506 7.7709
-12.8252 25.3465 7.72768
-12.4785 25.5153 7.70061
-12.1411 25.625 7.71881
-11.8366 25.6972 7.80513
-11.5534 25.7306 7.93713
-11.2737 25.7201 8.08542
-11.0079 25.7094 8.26852
-10.7301 25.6654 8.44217
-10.4523 25.6548 8.63184
-10.1564 25.6652 8.8071
-9.83388 25.6984 8.9507
-9.4835 25.7813 9.05936
-9.12607 25.9055 9.11784
-8.80123 26.0289 9.12559
-8.50168 26.15 9.09513
-8.21397 26.2606 9.03349
-7.93676 26.3781 8.95946
-7.6591 26.4937 8.88136
-7.37476 26.6131 8.81496
-7.0724 26.7275 8.76881
-6.73909 26.8224 8.74836
-6.37288 26.9175 8.77735
-6.014 26.9811 8.84672
-5.69191 27.0152 8.95004
-5.39925 27.035 9.08087
-5.12628 27.0497 9.22962
-4.86134 27.0684 9.38605
-4.59011 27.0869 9.53501
-4.2989 27.1147 9.66857
-3.97706 27.1644 9.77551
-3.60864 27.1999 9.83662
-3.24059 27.2303 9.83921
-2.91307 27.2711 9.79084
-2.60936 27.3147 9.70662
-2.32046 27.3298 9.59625
-2.03258 27.3202 9.47623
-1.73079 27.3263 9.37166
-1.39825 27.3389 9.29658
-1.02156 27.3511 9.26288
-0.654183 27.3771 9.28599
-0.324986 27.4235 9.35683
-0.0248073 27.4786 9.45507
0.261371 27.5366 9.56374
0.546074 27.5938 9.66551
0.844931 27.6488 9.74637
1.17253 27.6953 9.78933
1.54357 27.7166 9.7774
1.90526 27.6935 9.70342
2.21519 27.6446 9.5835
2.48663 27.5901 9.43523
2.74254 27.5355 9.26918
2.99582 27.4806 9.09755
3.26867 27.434 8.93564
3.57937 27.4214 8.80965
3.93123 27.4157 8.731
4.31052 27.3726 8.68751
4.65897 27.3389 8.70935
4.9752 27.2946 8.7732
5.27322 27.2657 8.87046
5.56508 27.2302 8.97463
5.86327 27.1902 9.06743
6.18008 27.1409 9.12892
6.52619 27.0688 9.13791
6.89816 26.9873 9.0838
7.23193 26.9019 8.99132
7.52632 26.8098 8.86901
7.80053 26.7391 8.73012
8.06035 26.6733 8.57941
8.3141 26.6047 8.42505
8.57863 26.5403 8.27662
8.86907 26.4858 8.14961
9.18686 26.4212 8.04722
9.52804 26.3191 7.96408
9.87146 26.1582 7.90081
10.1701 25.9734 7.88682
10.4443 25.7985 7.91972
10.7224 25.6661 7.99883
10.9874 25.5214 8.08073
11.2574 25.3781 8.15457
11.537 25.2258 8.20096
11.8472 25.0822 8.2096
12.2293 25.0433 8.18585
12.5907 24.9775 8.09836
12.9288 24.969 7.98353
13.2469 25.0024 7.85054
13.5482 25.0445 7.70072
13.8347 25.0434 7.52189
14.1173 25.0746 7.36222
14.3922 25.0696 7.2076
14.6704 25.0399 7.07493
14.962 24.9793 6.97971
15.2761 24.8819 6.92917
15.625 24.7216 6.92633
15.9516 24.5341 6.95342
16.2365 24.325 6.99752
16.4856 24.1061 7.0595
16.6989 23.8701 7.12972
16.8908 23.6258 7.21316
17.0656 23.381 7.30659
17.2309 23.1334 7.406
17.3908 22.881 7.50864
17.5421 22.6217 7.60687
17.6875 22.3526 7.69766
17.8451 22.0843 7.78346
18.0036 21.804 7.85358
18.1704 21.5141 7.90914
18.3555 21.2176 7.94821
18.5615 20.9125 7.9649
18.807 20.6111 7.95923
19.1132 20.3928 7.93216
19.4026 20.2087 7.87661
19.6525 20.0166 7.78952
19.8754 19.8192 7.68032
20.0894 19.6272 7.55439
20.2988 19.4396 7.41767
20.5018 19.2464 7.27622
20.7033 19.0425 7.13511
20.9004 18.8217 7.00369
21.0962 18.5769 6.88453
21.2736 18.2884 6.7757
21.4812 17.9798 6.70544
21.666 17.64 6.64462
21.834 17.3074 6.58458
21.9949 16.9865 6.52884
22.1392 16.6699 6.4726
22.2692 16.3577 6.41673
22.3804 16.0473 6.35775
22.4873 15.7433 6.30195
22.5944 15.4475 6.25282
22.7116 15.1654 6.21464
22.8386 14.8914 6.18551
22.982 14.6289 6.17155
23.1356 14.3748 6.16871
23.3033 14.1258 6.17627
23.4799 13.8795 6.19401
23.6606 13.6332 6.21868
23.8542 13.3873 6.25281
24.0507 13.137 6.29238
24.2531 12.8823 6.33842
24.4431 12.6131 6.3784
24.6196 12.3276 6.41075
24.7816 12.0243 6.43354
24.9293 11.7017 6.44526
25.0635 11.359 6.44482
25.2017 11.0031 6.44343
25.3429 10.635 6.44024
25.4785 10.2735 6.43588
25.6067 9.92167 6.43002
25.7281 9.57833 6.42222
25.8376 9.24046 6.40666
25.9399 8.90902 6.38671
26.0333 8.5821 6.35991
26.1236 8.26069 6.32914
26.2138 7.947 6.2989
26.3126 7.64432 6.27983
26.4161 7.34952 6.26636
26.5226 7.061 6.25821
26.6324 6.77818 6.25753
26.7528 6.50543 6.27478
26.8893 6.2428 6.31958
27.0315 5.98452 6.38143
27.172 5.72735 6.44941
27.3208 5.47161 6.53775
27.4719 5.21483 6.64056
27.6179 4.95314 6.74428
27.7521 4.67808 6.831
27.871 4.38884 6.8931
27.9897 4.0926 6.95838
28.1074 3.78816 7.02397
28.2143 3.46861 7.06726
28.3192 3.13808 7.10564
28.4211 2.79526 7.13581
28.5242 2.441 7.1669
28.6303 2.07505 7.20216
28.7318 1.69654 7.22796
28.8058 1.32842 7.23632
28.8477 0.975354 7.22342
28.8731 0.638883 7.21651
28.8798 0.313443 7.20366
28.886 -0.00297486 7.21336
28.8928 -0.313767 7.23564
28.8896 -0.621057 7.24614
28.8853 -0.92647 7.25428
28.8848 -1.23153 7.26219
28.8775 -1.53798 7.25465
28.8744 -1.84902 7.24438
28.8657 -2.16806 7.2218
28.8649 -2.49994 7.19919
28.8906 -2.84591 7.18919
28.9663 -3.20211 7.20431
29.0995 -3.56519 7.24547
29.2716 -3.91191 7.29505
29.463 -4.22881 7.34099
29.6708 -4.51839 7.38662
29.886 -4.77762 7.42729
30.1161 -5.02171 7.47113
30.3405 -5.2584 7.50864
30.5451 -5.49235 7.53193
30.7469 -5.73464 7.54925
30.9328 -5.98689 7.55595
31.1012 -6.25336 7.55219
31.254 -6.53228 7.54527
31.3978 -6.81744 7.53953
31.5185 -7.12637 7.52701
31.6356 -7.42855 7.53578
31.7417 -7.73824 7.55366
31.8371 -8.06218 7.58463
31.904 -8.39707 7.62444
31.9533 -8.74725 7.67617
31.9811 -9.11686 7.74134
31.9793 -9.50033 7.81582
31.9455 -9.85368 7.90089
31.8684 -10.1729 7.98189
31.7783 -10.4678 8.07762
31.6619 -10.7411 8.18162
31.519 -10.9956 8.28803
31.3617 -11.2445 8.40744
31.1872 -11.4764 8.55081
30.9883 -11.7004 8.69487
30.7833 -11.9037 8.88092
30.5556 -12.1055 9.06424
30.3129 -12.3037 9.2573
30.0567 -12.5093 9.44647
29.7893 -12.7296 9.63281
29.5197 -12.9308 9.79929
29.251 -13.0908 9.93308
28.9755 -13.215 10.0428
28.795 -13.2302 10.5202
28.4462 -13.3775 10.458
28.1072 -13.4623 10.396
27.7601 -13.521 10.3391
27.4009 -13.5902 10.3082
27.0255 -13.6896 10.2813
26.6706 -13.8231 10.2832
26.3409 -13.9761 10.2913
26.0198 -14.0958 10.2422
25.6957 -14.1515 10.1329
25.377 -14.177 10.0155
25.0826 -14.2108 9.92687
24.7953 -14.2529 9.84635
24.5334 -14.2919 9.76942
24.2536 -14.374 9.68874
23.9598 -14.4772 9.58673
23.6488 -14.5504 9.45053
23.3091 -14.5572 9.27226
22.9855 -14.4985 9.06621
22.7004 -14.41 8.84393
22.4563 -14.2899 8.60947
22.2583 -14.1353 8.36433
22.1219 -13.9505 8.11683
21.9899 -13.7967 7.86277
21.7709 -13.7298 7.62585
21.5729 -13.6146 7.40364
21.3832 -13.4518 7.19077
21.1955 -13.2492 7.00322
21.0475 -12.9972 6.82937
20.915 -12.7062 6.6766
20.7934 -12.3752 6.5463
20.6853 -12.0161 6.44354
20.605 -11.6684 6.36988
20.5356 -11.3336 6.32973
20.4898 -11.0073 6.31328
20.4536 -10.6899 6.3209
20.4216 -10.3779 6.3527
20.3975 -10.0696 6.40219
20.3839 -9.76324 6.46312
20.3733 -9.45782 6.53477
20.3702 -9.15142 6.60963
20.3657 -8.84356 6.68763
20.364 -8.53148 6.76167
20.3629 -8.21386 6.82891
20.3626 -7.89024 6.88468
20.3628 -7.55452 6.92387
20.3508 -7.2076 6.95049
20.3169 -6.84853 6.96419
20.2623 -6.47506 6.95817
20.1887 -6.0903 6.93137
20.0734 -5.73379 6.90627
19.9214 -5.40877 6.88502
19.7466 -5.11039 6.8626
19.572 -4.82797 6.83042
19.3937 -4.56247 6.79291
19.2189 -4.3039 6.74471
19.0538 -4.04806 6.68713
18.8979 -3.79234 6.62176
18.7518 -3.53409 6.54978
18.6105 -3.27221 6.47622
18.4721 -3.00643 6.40392
18.346 -2.72779 6.33167
18.2273 -2.44112 6.26475
18.1126 -2.14426 6.20527
18.0045 -1.83214 6.15508
17.9063 -1.50546 6.1149
17.8101 -1.16242 6.0877
17.7264 -0.796976 6.07228
17.6472 -0.413112 6.07115
17.5858 -0.0352661 6.07529
17.5331 0.328976 6.0852
17.4914 0.682327 6.09951
17.4724 1.02711 6.11509
17.4528 1.35988 6.13689
17.4394 1.68526 6.16231
17.4391 2.00399 6.18969
17.4566 2.31586 6.21697
17.4762 2.62373 6.24689
17.5031 2.92765 6.27854
17.541 3.22893 6.31037
17.5865 3.52805 6.34134
17.6186 3.82703 6.37803
17.6518 4.12676 6.41575
17.6578 4.42867 6.46166
17.6582 4.73227 6.50918
17.6534 5.0395 6.55736
17.6357 5.35415 6.60876
17.5956 5.66962 6.66444
17.5296 5.9891 6.7243
17.4377 6.31565 6.78851
17.3419 6.64556 6.85061
17.2452 6.98416 6.90835
17.1513 7.33345 6.96058
17.0602 7.6953 7.00722
16.9734 8.07108 7.04671
16.8973 8.4522 7.07794
16.8267 8.81616 7.10407
16.7703 9.16709 7.12262
16.7322 9.50897 7.1322
16.6785 9.8369 7.14253
16.6215 10.1535 7.15044
16.5667 10.4643 7.1536
16.4829 10.7641 7.16129
16.3759 11.049 7.1735
16.2387 11.3207 7.19146
16.0688 11.579 7.21666
15.903 11.8424 7.23786
15.7467 12.1137 7.25277
15.5879 12.3921 7.26516
15.418 12.6759 7.27808
15.2452 12.9715 7.28855
15.0714 13.283 7.29544
14.894 13.6114 7.29958
14.7336 13.9695 7.29191
14.5926 14.3271 7.27281
14.4486 14.662 7.25192
14.3047 14.9783 7.2292
14.1654 15.2821 7.20125
14.015 15.5673 7.17511
13.868 15.8507 7.14346
13.6961 16.1084 7.12243
13.4632 16.3194 7.13255
13.2086 16.5141 7.15365
12.9643 16.7102 7.16923
12.7322 16.9208 7.17366
12.5121 17.153 7.16397
12.2807 17.3903 7.1547
12.0294 17.6285 7.15132
11.7535 17.8657 7.15722
11.4488 18.1006 7.17573
11.1494 18.34 7.18595
10.8757 18.5712 7.17805
10.5963 18.7696 7.17593
10.316 18.9302 7.1837
10.0244 19.0386 7.21429
9.72815 19.1157 7.25807
9.42955 19.1903 7.30152
9.12656 19.2541 7.35207
8.81303 19.3131 7.41086
8.48771 19.3846 7.47054
8.14628 19.47 7.53429
7.78797 19.5853 7.59546
7.43235 19.7238 7.65294
7.10441 19.8706 7.70499
6.80396 20.0496 7.73372
6.52166 20.2535 7.74377
6.25005 20.4599 7.74706
5.97512 20.6104 7.78619
5.69332 20.6983 7.86446
5.40177 20.7362 7.97784
5.10493 20.7184 8.1232
4.8001 20.7038 8.25857
4.4835 20.7143 8.36895
4.14962 20.7428 8.45633
3.79204 20.7884 8.51996
3.40892 20.8283 8.57565
3.04072 20.8543 8.62279
2.6955 20.8876 8.64498
2.36789 20.9152 8.65367
2.05451 20.9089 8.67306
1.75139 20.8742 8.70069
1.45103 20.8635 8.69756
1.14799 20.8772 8.66417
0.843751 20.8371 8.66553
0.529605 20.8006 8.65749
0.201572 20.7611 8.64737
-0.145316 20.7239 8.63257
-0.514809 20.6778 8.62461
-0.90382 20.662 8.59187
-1.27312 20.6599 8.54602
-1.62123 20.6795 8.47997
-1.95028 20.732 8.38466
-2.26617 20.7756 8.29556
-2.57211 20.8259 8.19823
-2.87508 20.8725 8.10002
-3.17591 20.8911 8.02395
-3.47684 20.8358 8.00326
-3.7774 20.69 8.05171
-4.08471 20.5167 8.11868
-4.39353 20.3601 8.1706
-4.71744 20.2386 8.1907
-5.06093 20.1365 8.19132
-5.42528 20.0368 8.18656
-5.80095 19.9383 8.18313
-6.14909 19.8365 8.20046
-6.4813 19.7653 8.20265
-6.81256 19.7462 8.15937
-7.13067 19.7087 8.12818
-7.4294 19.6114 8.14615
-7.67541 19.4191 8.25225
-7.94542 19.2639 8.29657
-8.20839 19.0743 8.35048
-8.49439 18.876 8.37054
-8.81461 18.6666 8.34937
-9.14804 18.4574 8.302
-9.43762 18.227 8.29585
-9.70529 17.9964 8.29845
-9.93184 17.7455 8.33485
-10.1614 17.5116 8.35147
-10.4062 17.3041 8.33619
-10.6504 17.1032 8.31281
-10.8682 16.8825 8.31273
-11.0866 16.6681 8.305
-11.2808 16.4358 8.31494
-11.4376 16.173 8.35382
-11.5838 15.9013 8.39623
-11.7293 15.6224 8.43364
-11.8849 15.3413 8.45928
-12.0377 15.0462 8.48537
-12.2034 14.745 8.50065
-12.3895 14.4407 8.50163
-12.5993 14.1332 8.48801
-12.8353 13.8232 8.45981
-13.0729 13.523 8.42628
-13.3081 13.2447 8.38645
-13.5329 12.9786 8.34595
-13.7553 12.7283 8.2999
-13.9808 12.4945 8.2459
-14.1987 12.2661 8.19112
-14.4014 12.0342 8.13886
-14.5904 11.7935 8.08861
-14.7449 11.5333 8.05265
-14.8738 11.2566 8.0235
-14.9968 10.9747 7.99137
-15.1011 10.6733 7.96472
-15.1751 10.3536 7.94721
-15.2687 10.0376 7.91523
-15.3765 9.71749 7.8726
-15.4946 9.38859 7.82151
-15.615 9.04271 7.7662
-15.7408 8.67891 7.70561
-15.8614 8.3164 7.64195
-15.9608 7.96117 7.58112
-16.0518 7.61687 7.51823
-16.1496 7.28673 7.44786
-16.2399 6.96458 7.37664
-16.3182 6.64807 7.30669
-16.3836 6.33529 7.23893
-16.4485 6.02978 7.16933
-16.5054 5.72805 7.101
-16.5316 5.42384 7.0426
-16.5525 5.12328 6.98536
-16.574 4.82569 6.92749
-16.5932 4.52929 6.87058
-16.6163 4.23432 6.81302
-16.6456 3.9399 6.7547
-16.6791 3.64465 6.69688
-16.7176 3.34779 6.63977
-16.75 3.04602 6.58701
-16.7921 2.74125 6.53453
-16.8404 2.4319 6.48373
-16.9025 2.11851 6.43307
-16.9626 1.79638 6.38716
-17.0391 1.46892 6.34164
-17.1259 1.13355 6.29847
-17.2204 0.788317 6.25875
-17.326 0.4331 6.22198
-17.4424 0.0663543 6.18866
-17.5824 -0.294881 6.15914
-17.7276 -0.629318 6.14455
-17.8739 -0.94362 6.14536
-18.0254 -1.23977 6.15936
-18.1813 -1.52462 6.18657
-18.3462 -1.79269 6.22357
-18.522 -2.0465 6.26589
-18.7028 -2.29245 6.31362
-18.8905 -2.52982 6.3629
-19.0841 -2.76367 6.41047
-19.2849 -2.99666 6.45354
-19.4908 -3.23013 6.48724
-19.7072 -3.47555 6.51188
-19.9189 -3.7422 6.53252
-20.1093 -4.04088 6.55544
-20.2838 -4.37442 6.57662
-20.4377 -4.73391 6.59159
-20.5474 -5.09249 6.60134
-20.6167 -5.44548 6.60859
-20.6575 -5.79114 6.61144
-20.6894 -6.12724 6.60309
-20.713 -6.45461 6.58683
-20.7324 -6.77699 6.56572
-20.7469 -7.09489 6.54548
-20.7691 -7.40785 6.52215
-20.8056 -7.71824 6.49648
-20.8458 -8.02726 6.48158
-20.8926 -8.33569 6.48167
-20.9532 -8.6439 6.49688
-21.0275 -8.95296 6.53309
-21.1184 -9.26321 6.59433
-21.2207 -9.57796 6.68838
-21.3375 -9.89758 6.82181
-21.475 -10.2206 6.99238
-21.5906 -10.5159 7.20006
-21.7152 -10.7769 7.40982
-21.8472 -11.0102 7.62215
-21.9951 -11.2159 7.83602
-22.1574 -11.3964 8.05687
-22.339 -11.5505 8.28013
-22.5343 -11.677 8.50937
-22.7569 -11.7675 8.73343
-22.9494 -11.8578 8.97597
-23.0987 -11.9803 9.24022
-23.2965 -12.0798 9.48748
-23.5114 -12.1839 9.72946
-23.7698 -12.2667 9.95065
-24.05 -12.3574 10.1603
-24.3687 -12.4366 10.3467
